428.759342 190.249051 597.779924
429.896446 191.889105 597.911128
431.033551 193.529160 598.042333
432.170655 195.169214 598.173537
433.307760 196.809269 598.304742
434.444864 198.449324 598.435946
435.581969 200.089378 598.567150
436.719073 201.729433 598.698355
437.856178 203.369487 598.829559
438.993282 205.009542 598.960763
440.130387 206.649596 599.091968
441.267491 208.289651 599.223172
442.404596 209.929705 599.354376
443.541700 211.569760 599.485581
444.678805 213.209814 599.616785
445.815909 214.849869 599.747990
320.000000 -416.000000 564.000000
319.534419 -414.056200 564.069837
319.068838 -412.112401 564.139674
318.603258 -410.168601 564.209511
318.137677 -408.224801 564.279348
317.672096 -406.281001 564.349186
317.206515 -404.337202 564.419023
316.740935 -402.393402 564.488860
316.275354 -400.449602 564.558697
315.809773 -398.505803 564.628534
315.344192 -396.562003 564.698371
314.878612 -394.618203 564.768208
314.413031 -392.674403 564.838045
313.947450 -390.730604 564.907883
313.481869 -388.786804 564.977720
313.016288 -386.843004 565.047557
312.550708 -384.899205 565.117394
312.085127 -382.955405 565.187231
311.619546 -381.011605 565.257068
311.153965 -379.067805 565.326905
310.688385 -377.124006 565.396742
310.222804 -375.180206 565.466579
309.757223 -373.236406 565.536417
309.291642 -371.292607 565.606254
308.826062 -369.348807 565.676091
308.360481 -367.405007 565.745928
307.894900 -365.461207 565.815765
307.429319 -363.517408 565.885602
306.963738 -361.573608 565.955439
306.498158 -359.629808 566.025276
306.032577 -357.686009 566.095113
305.566996 -355.742209 566.164951
305.101415 -353.798409 566.234788
304.635835 -351.854609 566.304625
304.170254 -349.910810 566.374462
303.704673 -347.967010 566.444299
303.239092 -346.023210 566.514136
302.773512 -344.079411 566.583973
302.307931 -342.135611 566.653810
301.842350 -340.191811 566.723648
301.376769 -338.248011 566.793485
300.911188 -336.304212 566.863322
300.445608 -334.360412 566.933159
299.980027 -332.416612 567.002996
299.514446 -330.472813 567.072833
299.048865 -328.529013 567.142670
298.583285 -326.585213 567.212507
298.117704 -324.641413 567.282344
297.652123 -322.697614 567.352182
297.186542 -320.753814 567.422019
296.720962 -318.810014 567.491856
296.255381 -316.866215 567.561693
295.789800 -314.922415 567.631530
295.324219 -312.978615 567.701367
294.858638 -311.034815 567.771204
294.393058 -309.091016 567.841041
293.927477 -307.147216 567.910878
293.461896 -305.203416 567.980716
292.996315 -303.259617 568.050553
292.530735 -301.315817 568.120390
292.065154 -299.372017 568.190227
291.599573 -297.428218 568.260064
291.133992 -295.484418 568.329901
290.668412 -293.540618 568.399738
290.202831 -291.596818 568.469575
289.737250 -289.653019 568.539413
289.271669 -287.709219 568.609250
288.806088 -285.765419 568.679087
288.340508 -283.821620 568.748924
287.874927 -281.877820 568.818761
287.409346 -279.934020 568.888598
286.943765 -277.990220 568.958435
286.478185 -276.046421 569.028272
286.012604 -274.102621 569.098109
285.547023 -272.158821 569.167947
285.081442 -270.215022 569.237784
284.615862 -268.271222 569.307621
284.150281 -266.327422 569.377458
283.684700 -264.383622 569.447295
283.219119 -262.439823 569.517132
282.753538 -260.496023 569.586969
282.287958 -258.552223 569.656806
281.822377 -256.608424 569.726643
281.356796 -254.664624 569.796481
280.891215 -252.720824 569.866318
280.425635 -250.777024 569.936155
279.960054 -248.833225 570.005992
279.494473 -246.889425 570.075829
279.028892 -244.945625 570.145666
278.563312 -243.001826 570.215503
278.097731 -241.058026 570.285340
277.632150 -239.114226 570.355178
277.166569 -237.170426 570.425015
276.700988 -235.226627 570.494852
276.235408 -233.282827 570.564689
275.769827 -231.339027 570.634526
275.304246 -229.395228 570.704363
274.838665 -227.451428 570.774200
274.373085 -225.507628 570.844037
273.907504 -223.563828 570.913874
273.441923 -221.620029 570.983712
272.976342 -219.676229 571.053549
272.510762 -217.732429 571.123386
272.045181 -215.788630 571.193223
271.579600 -213.844830 571.263060
271.114019 -211.901030 571.332897
270.648438 -209.957230 571.402734
270.182858 -208.013431 571.472571
269.717277 -206.069631 571.542408
269.251696 -204.125831 571.612246
268.786115 -202.182032 571.682083
268.320535 -200.238232 571.751920
267.854954 -198.294432 571.821757
267.389373 -196.350632 571.891594
266.923792 -194.406833 571.961431
266.458211 -192.463033 572.031268
265.992631 -190.519233 572.101105
265.527050 -188.575434 572.170943
265.061469 -186.631634 572.240780
264.595888 -184.687834 572.310617
264.130308 -182.744034 572.380454
263.664727 -180.800235 572.450291
263.199146 -178.856435 572.520128
262.733565 -176.912635 572.589965
262.267985 -174.968836 572.659802
261.802404 -173.025036 572.729639
261.336823 -171.081236 572.799477
260.871242 -169.137436 572.869314
260.405661 -167.193637 572.939151
259.940081 -165.249837 573.008988
259.474500 -163.306037 573.078825
259.008919 -161.362238 573.148662
258.543338 -159.418438 573.218499
258.077758 -157.474638 573.288336
257.612177 -155.530838 573.358173
257.146596 -153.587039 573.428011
256.681015 -151.643239 573.497848
256.215435 -149.699439 573.567685
255.749854 -147.755640 573.637522
255.284273 -145.811840 573.707359
254.818692 -143.868040 573.777196
254.353111 -141.924240 573.847033
253.887531 -139.980441 573.916870
253.421950 -138.036641 573.986708
252.956369 -136.092841 574.056545
252.490788 -134.149042 574.126382
252.025208 -132.205242 574.196219
251.559627 -130.261442 574.266056
251.094046 -128.317642 574.335893
250.628465 -126.373843 574.405730
250.162885 -124.430043 574.475567
249.697304 -122.486243 574.545404
249.231723 -120.542444 574.615242
248.766142 -118.598644 574.685079
248.300561 -116.654844 574.754916
247.834981 -114.711044 574.824753
247.369400 -112.767245 574.894590
246.903819 -110.823445 574.964427
246.438238 -108.879645 575.034264
245.972658 -106.935846 575.104101
245.507077 -104.992046 575.173938
245.041496 -103.048246 575.243776
244.575915 -101.104446 575.313613
244.110335 -99.160647 575.383450
243.644754 -97.216847 575.453287
243.179173 -95.273047 575.523124
242.713592 -93.329248 575.592961
242.248011 -91.385448 575.662798
241.782431 -89.441648 575.732635
241.316850 -87.497849 575.802473
240.851269 -85.554049 575.872310
32.000000 -428.000000 880.000000
33.346677 -427.943888 878.522396
34.693354 -427.887777 877.044792
36.040031 -427.831665 875.567189
37.386707 -427.775554 874.089585
38.733384 -427.719442 872.611981
40.080061 -427.663331 871.134377
41.426738 -427.607219 869.656774
42.773415 -427.551108 868.179170
44.120092 -427.494996 866.701566
45.466769 -427.438885 865.223962
46.813445 -427.382773 863.746358
48.160122 -427.326662 862.268755
49.506799 -427.270550 860.791151
50.853476 -427.214438 859.313547
52.200153 -427.158327 857.835943
53.546830 -427.102215 856.358340
54.893507 -427.046104 854.880736
56.240184 -426.989992 853.403132
57.586860 -426.933881 851.925528
58.933537 -426.877769 850.447924
60.280214 -426.821658 848.970321
61.626891 -426.765546 847.492717
62.973568 -426.709435 846.015113
64.320245 -426.653323 844.537509
65.666922 -426.597212 843.059906
67.013598 -426.541100 841.582302
68.360275 -426.484989 840.104698
69.706952 -426.428877 838.627094
71.053629 -426.372765 837.149490
72.400306 -426.316654 835.671887
73.746983 -426.260542 834.194283
75.093660 -426.204431 832.716679
76.440336 -426.148319 831.239075
77.787013 -426.092208 829.761472
79.133690 -426.036096 828.283868
80.480367 -425.979985 826.806264
81.827044 -425.923873 825.328660
83.173721 -425.867762 823.851056
84.520398 -425.811650 822.373453
85.867074 -425.755539 820.895849
87.213751 -425.699427 819.418245
88.560428 -425.643315 817.940641
89.907105 -425.587204 816.463038
91.253782 -425.531092 814.985434
92.600459 -425.474981 813.507830
93.947136 -425.418869 812.030226
95.293812 -425.362758 810.552622
96.640489 -425.306646 809.075019
97.987166 -425.250535 807.597415
99.333843 -425.194423 806.119811
100.680520 -425.138312 804.642207
102.027197 -425.082200 803.164604
103.373874 -425.026089 801.687000
104.720551 -424.969977 800.209396
106.067227 -424.913866 798.731792
107.413904 -424.857754 797.254188
108.760581 -424.801642 795.776585
110.107258 -424.745531 794.298981
111.453935 -424.689419 792.821377
112.800612 -424.633308 791.343773
114.147289 -424.577196 789.866170
115.493965 -424.521085 788.388566
116.840642 -424.464973 786.910962
118.187319 -424.408862 785.433358
119.533996 -424.352750 783.955754
120.880673 -424.296639 782.478151
122.227350 -424.240527 781.000547
123.574027 -424.184416 779.522943
124.920703 -424.128304 778.045339
126.267380 -424.072192 776.567736
127.614057 -424.016081 775.090132
128.960734 -423.959969 773.612528
130.307411 -423.903858 772.134924
131.654088 -423.847746 770.657320
133.000765 -423.791635 769.179717
134.347441 -423.735523 767.702113
135.694118 -423.679412 766.224509
137.040795 -423.623300 764.746905
138.387472 -423.567189 763.269301
139.734149 -423.511077 761.791698
141.080826 -423.454966 760.314094
142.427503 -423.398854 758.836490
143.774180 -423.342743 757.358886
145.120856 -423.286631 755.881283
146.467533 -423.230519 754.403679
147.814210 -423.174408 752.926075
149.160887 -423.118296 751.448471
150.507564 -423.062185 749.970867
151.854241 -423.006073 748.493264
153.200918 -422.949962 747.015660
154.547594 -422.893850 745.538056
155.894271 -422.837739 744.060452
157.240948 -422.781627 742.582849
158.587625 -422.725516 741.105245
159.934302 -422.669404 739.627641
161.280979 -422.613293 738.150037
162.627656 -422.557181 736.672433
163.974332 -422.501069 735.194830
165.321009 -422.444958 733.717226
166.667686 -422.388846 732.239622
168.014363 -422.332735 730.762018
169.361040 -422.276623 729.284415
170.707717 -422.220512 727.806811
172.054394 -422.164400 726.329207
173.401070 -422.108289 724.851603
174.747747 -422.052177 723.373999
176.094424 -421.996066 721.896396
177.441101 -421.939954 720.418792
178.787778 -421.883843 718.941188
180.134455 -421.827731 717.463584
181.481132 -421.771620 715.985981
182.827808 -421.715508 714.508377
184.174485 -421.659396 713.030773
185.521162 -421.603285 711.553169
186.867839 -421.547173 710.075565
188.214516 -421.491062 708.597962
189.561193 -421.434950 707.120358
190.907870 -421.378839 705.642754
192.254547 -421.322727 704.165150
193.601223 -421.266616 702.687547
194.947900 -421.210504 701.209943
196.294577 -421.154393 699.732339
197.641254 -421.098281 698.254735
198.987931 -421.042170 696.777131
200.334608 -420.986058 695.299528
201.681285 -420.929946 693.821924
203.027961 -420.873835 692.344320
204.374638 -420.817723 690.866716
205.721315 -420.761612 689.389113
207.067992 -420.705500 687.911509
208.414669 -420.649389 686.433905
209.761346 -420.593277 684.956301
211.108023 -420.537166 683.478697
212.454699 -420.481054 682.001094
213.801376 -420.424943 680.523490
215.148053 -420.368831 679.045886
216.494730 -420.312720 677.568282
217.841407 -420.256608 676.090679
219.188084 -420.200497 674.613075
220.534761 -420.144385 673.135471
221.881437 -420.088273 671.657867
223.228114 -420.032162 670.180263
224.574791 -419.976050 668.702660
225.921468 -419.919939 667.225056
227.268145 -419.863827 665.747452
228.614822 -419.807716 664.269848
229.961499 -419.751604 662.792245
231.308175 -419.695493 661.314641
232.654852 -419.639381 659.837037
234.001529 -419.583270 658.359433
235.348206 -419.527158 656.881829
236.694883 -419.471047 655.404226
238.041560 -419.414935 653.926622
239.388237 -419.358823 652.449018
240.734914 -419.302712 650.971414
242.081590 -419.246600 649.493811
243.428267 -419.190489 648.016207
244.774944 -419.134377 646.538603
246.121621 -419.078266 645.060999
247.468298 -419.022154 643.583395
248.814975 -418.966043 642.105792
250.161652 -418.909931 640.628188
251.508328 -418.853820 639.150584
252.855005 -418.797708 637.672980
254.201682 -418.741597 636.195377
255.548359 -418.685485 634.717773
256.895036 -418.629374 633.240169
258.241713 -418.573262 631.762565
259.588390 -418.517150 630.284961
260.935066 -418.461039 628.807358
262.281743 -418.404927 627.329754
263.628420 -418.348816 625.852150
264.975097 -418.292704 624.374546
266.321774 -418.236593 622.896943
267.668451 -418.180481 621.419339
269.015128 -418.124370 619.941735
270.361804 -418.068258 618.464131
271.708481 -418.012147 616.986527
273.055158 -417.956035 615.508924
274.401835 -417.899924 614.031320
275.748512 -417.843812 612.553716
277.095189 -417.787700 611.076112
278.441866 -417.731589 609.598509
279.788543 -417.675477 608.120905
281.135219 -417.619366 606.643301
282.481896 -417.563254 605.165697
283.828573 -417.507143 603.688093
285.175250 -417.451031 602.210490
286.521927 -417.394920 600.732886
287.868604 -417.338808 599.255282
289.215281 -417.282697 597.777678
290.561957 -417.226585 596.300075
291.908634 -417.170474 594.822471
293.255311 -417.114362 593.344867
294.601988 -417.058251 591.867263
295.948665 -417.002139 590.389659
297.295342 -416.946027 588.912056
298.642019 -416.889916 587.434452
299.988695 -416.833804 585.956848
301.335372 -416.777693 584.479244
302.682049 -416.721581 583.001641
304.028726 -416.665470 581.524037
305.375403 -416.609358 580.046433
306.722080 -416.553247 578.568829
308.068757 -416.497135 577.091225
309.415433 -416.441024 575.613622
310.762110 -416.384912 574.136018
312.108787 -416.328801 572.658414
313.455464 -416.272689 571.180810
314.802141 -416.216577 569.703207
316.148818 -416.160466 568.225603
317.495495 -416.104354 566.747999
-252.000000 -416.000000 564.000000
-250.663644 -416.056466 565.486931
-249.327288 -416.112931 566.973862
-247.990932 -416.169397 568.460794
-246.654576 -416.225863 569.947725
-245.318220 -416.282329 571.434656
-243.981865 -416.338794 572.921587
-242.645509 -416.395260 574.408519
-241.309153 -416.451726 575.895450
-239.972797 -416.508192 577.382381
-238.636441 -416.564657 578.869312
-237.300085 -416.621123 580.356244
-235.963729 -416.677589 581.843175
-234.627373 -416.734055 583.330106
-233.291017 -416.790520 584.817037
-231.954661 -416.846986 586.303968
-230.618305 -416.903452 587.790900
-229.281949 -416.959918 589.277831
-227.945594 -417.016383 590.764762
-226.609238 -417.072849 592.251693
-225.272882 -417.129315 593.738625
-223.936526 -417.185781 595.225556
-222.600170 -417.242246 596.712487
-221.263814 -417.298712 598.199418
-219.927458 -417.355178 599.686350
-218.591102 -417.411644 601.173281
-217.254746 -417.468109 602.660212
-215.918390 -417.524575 604.147143
-214.582034 -417.581041 605.634074
-213.245678 -417.637507 607.121006
-211.909323 -417.693972 608.607937
-210.572967 -417.750438 610.094868
-209.236611 -417.806904 611.581799
-207.900255 -417.863370 613.068731
-206.563899 -417.919835 614.555662
-205.227543 -417.976301 616.042593
-203.891187 -418.032767 617.529524
-202.554831 -418.089232 619.016456
-201.218475 -418.145698 620.503387
-199.882119 -418.202164 621.990318
-198.545763 -418.258630 623.477249
-197.209407 -418.315095 624.964180
-195.873052 -418.371561 626.451112
-194.536696 -418.428027 627.938043
-193.200340 -418.484493 629.424974
-191.863984 -418.540958 630.911905
-190.527628 -418.597424 632.398837
-189.191272 -418.653890 633.885768
-187.854916 -418.710356 635.372699
-186.518560 -418.766821 636.859630
-185.182204 -418.823287 638.346562
-183.845848 -418.879753 639.833493
-182.509492 -418.936219 641.320424
-181.173136 -418.992684 642.807355
-179.836781 -419.049150 644.294286
-178.500425 -419.105616 645.781218
-177.164069 -419.162082 647.268149
-175.827713 -419.218547 648.755080
-174.491357 -419.275013 650.242011
-173.155001 -419.331479 651.728943
-171.818645 -419.387945 653.215874
-170.482289 -419.444410 654.702805
-169.145933 -419.500876 656.189736
-167.809577 -419.557342 657.676668
-166.473221 -419.613808 659.163599
-165.136865 -419.670273 660.650530
-163.800510 -419.726739 662.137461
-162.464154 -419.783205 663.624392
-161.127798 -419.839671 665.111324
-159.791442 -419.896136 666.598255
-158.455086 -419.952602 668.085186
-157.118730 -420.009068 669.572117
-155.782374 -420.065533 671.059049
-154.446018 -420.121999 672.545980
-153.109662 -420.178465 674.032911
-151.773306 -420.234931 675.519842
-150.436950 -420.291396 677.006774
-149.100594 -420.347862 678.493705
-147.764239 -420.404328 679.980636
-146.427883 -420.460794 681.467567
-145.091527 -420.517259 682.954498
-143.755171 -420.573725 684.441430
-142.418815 -420.630191 685.928361
-141.082459 -420.686657 687.415292
-139.746103 -420.743122 688.902223
-138.409747 -420.799588 690.389155
-137.073391 -420.856054 691.876086
-135.737035 -420.912520 693.363017
-134.400679 -420.968985 694.849948
-133.064323 -421.025451 696.336880
-131.727968 -421.081917 697.823811
-130.391612 -421.138383 699.310742
-129.055256 -421.194848 700.797673
-127.718900 -421.251314 702.284604
-126.382544 -421.307780 703.771536
-125.046188 -421.364246 705.258467
-123.709832 -421.420711 706.745398
-122.373476 -421.477177 708.232329
-121.037120 -421.533643 709.719261
-119.700764 -421.590109 711.206192
-118.364408 -421.646574 712.693123
-117.028052 -421.703040 714.180054
-115.691697 -421.759506 715.666986
-114.355341 -421.815972 717.153917
-113.018985 -421.872437 718.640848
-111.682629 -421.928903 720.127779
-110.346273 -421.985369 721.614710
-109.009917 -422.041834 723.101642
-107.673561 -422.098300 724.588573
-106.337205 -422.154766 726.075504
-105.000849 -422.211232 727.562435
-103.664493 -422.267697 729.049367
-102.328137 -422.324163 730.536298
-100.991781 -422.380629 732.023229
-99.655426 -422.437095 733.510160
-98.319070 -422.493560 734.997092
-96.982714 -422.550026 736.484023
-95.646358 -422.606492 737.970954
-94.310002 -422.662958 739.457885
-92.973646 -422.719423 740.944816
-91.637290 -422.775889 742.431748
-90.300934 -422.832355 743.918679
-88.964578 -422.888821 745.405610
-87.628222 -422.945286 746.892541
-86.291866 -423.001752 748.379473
-84.955510 -423.058218 749.866404
-83.619155 -423.114684 751.353335
-82.282799 -423.171149 752.840266
-80.946443 -423.227615 754.327198
-79.610087 -423.284081 755.814129
-78.273731 -423.340547 757.301060
-76.937375 -423.397012 758.787991
-75.601019 -423.453478 760.274922
-74.264663 -423.509944 761.761854
-72.928307 -423.566410 763.248785
-71.591951 -423.622875 764.735716
-70.255595 -423.679341 766.222647
-68.919239 -423.735807 767.709579
-67.582884 -423.792273 769.196510
-66.246528 -423.848738 770.683441
-64.910172 -423.905204 772.170372
-63.573816 -423.961670 773.657304
-62.237460 -424.018135 775.144235
-60.901104 -424.074601 776.631166
-59.564748 -424.131067 778.118097
-58.228392 -424.187533 779.605028
-56.892036 -424.243998 781.091960
-55.555680 -424.300464 782.578891
-54.219324 -424.356930 784.065822
-52.882968 -424.413396 785.552753
-51.546613 -424.469861 787.039685
-50.210257 -424.526327 788.526616
-48.873901 -424.582793 790.013547
-47.537545 -424.639259 791.500478
-46.201189 -424.695724 792.987410
-44.864833 -424.752190 794.474341
-43.528477 -424.808656 795.961272
-42.192121 -424.865122 797.448203
-40.855765 -424.921587 798.935134
-39.519409 -424.978053 800.422066
-38.183053 -425.034519 801.908997
-36.846697 -425.090985 803.395928
-35.510342 -425.147450 804.882859
-34.173986 -425.203916 806.369791
-32.837630 -425.260382 807.856722
-31.501274 -425.316848 809.343653
-30.164918 -425.373313 810.830584
-28.828562 -425.429779 812.317516
-27.492206 -425.486245 813.804447
-26.155850 -425.542711 815.291378
-24.819494 -425.599176 816.778309
-23.483138 -425.655642 818.265240
-22.146782 -425.712108 819.752172
-20.810426 -425.768574 821.239103
-19.474071 -425.825039 822.726034
-18.137715 -425.881505 824.212965
-16.801359 -425.937971 825.699897
-15.465003 -425.994437 827.186828
-14.128647 -426.050902 828.673759
-12.792291 -426.107368 830.160690
-11.455935 -426.163834 831.647622
-10.119579 -426.220299 833.134553
-8.783223 -426.276765 834.621484
-7.446867 -426.333231 836.108415
-6.110511 -426.389697 837.595346
-4.774155 -426.446162 839.082278
-3.437800 -426.502628 840.569209
-2.101444 -426.559094 842.056140
-0.765088 -426.615560 843.543071
0.571268 -426.672025 845.030003
1.907624 -426.728491 846.516934
3.243980 -426.784957 848.003865
4.580336 -426.841423 849.490796
5.916692 -426.897888 850.977728
7.253048 -426.954354 852.464659
8.589404 -427.010820 853.951590
9.925760 -427.067286 855.438521
11.262116 -427.123751 856.925452
12.598471 -427.180217 858.412384
13.934827 -427.236683 859.899315
15.271183 -427.293149 861.386246
16.607539 -427.349614 862.873177
17.943895 -427.406080 864.360109
19.280251 -427.462546 865.847040
20.616607 -427.519012 867.333971
21.952963 -427.575477 868.820902
23.289319 -427.631943 870.307834
24.625675 -427.688409 871.794765
25.962031 -427.744875 873.281696
27.298386 -427.801340 874.768627
28.634742 -427.857806 876.255558
29.971098 -427.914272 877.742490
-224.000000 342.000000 576.000000
-224.073819 340.001613 575.968363
-224.147638 338.003226 575.936727
-224.221457 336.004840 575.905090
-224.295276 334.006453 575.873453
-224.369095 332.008066 575.841816
-224.442914 330.009679 575.810180
-224.516733 328.011292 575.778543
-224.590552 326.012905 575.746906
-224.664371 324.014519 575.715269
-224.738190 322.016132 575.683633
-224.812009 320.017745 575.651996
-224.885828 318.019358 575.620359
-224.959647 316.020971 575.588723
-225.033467 314.022585 575.557086
-225.107286 312.024198 575.525449
-225.181105 310.025811 575.493812
-225.254924 308.027424 575.462176
-225.328743 306.029037 575.430539
-225.402562 304.030650 575.398902
-225.476381 302.032264 575.367265
-225.550200 300.033877 575.335629
-225.624019 298.035490 575.303992
-225.697838 296.037103 575.272355
-225.771657 294.038716 575.240718
-225.845476 292.040330 575.209082
-225.919295 290.041943 575.177445
-225.993114 288.043556 575.145808
-226.066933 286.045169 575.114172
-226.140752 284.046782 575.082535
-226.214571 282.048396 575.050898
-226.288390 280.050009 575.019261
-226.362209 278.051622 574.987625
-226.436028 276.053235 574.955988
-226.509847 274.054848 574.924351
-226.583666 272.056461 574.892714
-226.657485 270.058075 574.861078
-226.731304 268.059688 574.829441
-226.805123 266.061301 574.797804
-226.878942 264.062914 574.766168
-226.952762 262.064527 574.734531
-227.026581 260.066141 574.702894
-227.100400 258.067754 574.671257
-227.174219 256.069367 574.639621
-227.248038 254.070980 574.607984
-227.321857 252.072593 574.576347
-227.395676 250.074206 574.544710
-227.469495 248.075820 574.513074
-227.543314 246.077433 574.481437
-227.617133 244.079046 574.449800
-227.690952 242.080659 574.418163
-227.764771 240.082272 574.386527
-227.838590 238.083886 574.354890
-227.912409 236.085499 574.323253
-227.986228 234.087112 574.291617
-228.060047 232.088725 574.259980
-228.133866 230.090338 574.228343
-228.207685 228.091951 574.196706
-228.281504 226.093565 574.165070
-228.355323 224.095178 574.133433
-228.429142 222.096791 574.101796
-228.502961 220.098404 574.070159
-228.576780 218.100017 574.038523
-228.650599 216.101631 574.006886
-228.724418 214.103244 573.975249
-228.798237 212.104857 573.943613
-228.872057 210.106470 573.911976
-228.945876 208.108083 573.880339
-229.019695 206.109697 573.848702
-229.093514 204.111310 573.817066
-229.167333 202.112923 573.785429
-229.241152 200.114536 573.753792
-229.314971 198.116149 573.722155
-229.388790 196.117762 573.690519
-229.462609 194.119376 573.658882
-229.536428 192.120989 573.627245
-229.610247 190.122602 573.595608
-229.684066 188.124215 573.563972
-229.757885 186.125828 573.532335
-229.831704 184.127442 573.500698
-229.905523 182.129055 573.469062
-229.979342 180.130668 573.437425
-230.053161 178.132281 573.405788
-230.126980 176.133894 573.374151
-230.200799 174.135507 573.342515
-230.274618 172.137121 573.310878
-230.348437 170.138734 573.279241
-230.422256 168.140347 573.247604
-230.496075 166.141960 573.215968
-230.569894 164.143573 573.184331
-230.643713 162.145187 573.152694
-230.717532 160.146800 573.121058
-230.791352 158.148413 573.089421
-230.865171 156.150026 573.057784
-230.938990 154.151639 573.026147
-231.012809 152.153252 572.994511
-231.086628 150.154866 572.962874
-231.160447 148.156479 572.931237
-231.234266 146.158092 572.899600
-231.308085 144.159705 572.867964
-231.381904 142.161318 572.836327
-231.455723 140.162932 572.804690
-231.529542 138.164545 572.773053
-231.603361 136.166158 572.741417
-231.677180 134.167771 572.709780
-231.750999 132.169384 572.678143
-231.824818 130.170997 572.646507
-231.898637 128.172611 572.614870
-231.972456 126.174224 572.583233
-232.046275 124.175837 572.551596
-232.120094 122.177450 572.519960
-232.193913 120.179063 572.488323
-232.267732 118.180677 572.456686
-232.341551 116.182290 572.425049
-232.415370 114.183903 572.393413
-232.489189 112.185516 572.361776
-232.563008 110.187129 572.330139
-232.636827 108.188743 572.298503
-232.710646 106.190356 572.266866
-232.784466 104.191969 572.235229
-232.858285 102.193582 572.203592
-232.932104 100.195195 572.171956
-233.005923 98.196808 572.140319
-233.079742 96.198422 572.108682
-233.153561 94.200035 572.077045
-233.227380 92.201648 572.045409
-233.301199 90.203261 572.013772
-233.375018 88.204874 571.982135
-233.448837 86.206488 571.950498
-233.522656 84.208101 571.918862
-233.596475 82.209714 571.887225
-233.670294 80.211327 571.855588
-233.744113 78.212940 571.823952
-233.817932 76.214553 571.792315
-233.891751 74.216167 571.760678
-233.965570 72.217780 571.729041
-234.039389 70.219393 571.697405
-234.113208 68.221006 571.665768
-234.187027 66.222619 571.634131
-234.260846 64.224233 571.602494
-234.334665 62.225846 571.570858
-234.408484 60.227459 571.539221
-234.482303 58.229072 571.507584
-234.556122 56.230685 571.475948
-234.629941 54.232298 571.444311
-234.703761 52.233912 571.412674
-234.777580 50.235525 571.381037
-234.851399 48.237138 571.349401
-234.925218 46.238751 571.317764
-234.999037 44.240364 571.286127
-235.072856 42.241978 571.254490
-235.146675 40.243591 571.222854
-235.220494 38.245204 571.191217
-235.294313 36.246817 571.159580
-235.368132 34.248430 571.127943
-235.441951 32.250043 571.096307
-235.515770 30.251657 571.064670
-235.589589 28.253270 571.033033
-235.663408 26.254883 571.001397
-235.737227 24.256496 570.969760
-235.811046 22.258109 570.938123
-235.884865 20.259723 570.906486
-235.958684 18.261336 570.874850
-236.032503 16.262949 570.843213
-236.106322 14.264562 570.811576
-236.180141 12.266175 570.779939
-236.253960 10.267789 570.748303
-236.327779 8.269402 570.716666
-236.401598 6.271015 570.685029
-236.475417 4.272628 570.653393
-236.549236 2.274241 570.621756
-236.623056 0.275854 570.590119
-236.696875 -1.722532 570.558482
-236.770694 -3.720919 570.526846
-236.844513 -5.719306 570.495209
-236.918332 -7.717693 570.463572
-236.992151 -9.716080 570.431935
-237.065970 -11.714466 570.400299
-237.139789 -13.712853 570.368662
-237.213608 -15.711240 570.337025
-237.287427 -17.709627 570.305388
-237.361246 -19.708014 570.273752
-237.435065 -21.706401 570.242115
-237.508884 -23.704787 570.210478
-237.582703 -25.703174 570.178842
-237.656522 -27.701561 570.147205
-237.730341 -29.699948 570.115568
-237.804160 -31.698335 570.083931
-237.877979 -33.696721 570.052295
-237.951798 -35.695108 570.020658
-238.025617 -37.693495 569.989021
-238.099436 -39.691882 569.957384
-238.173255 -41.690269 569.925748
-238.247074 -43.688656 569.894111
-238.320893 -45.687042 569.862474
-238.394712 -47.685429 569.830838
-238.468531 -49.683816 569.799201
-238.542350 -51.682203 569.767564
-238.616170 -53.680590 569.735927
-238.689989 -55.678976 569.704291
-238.763808 -57.677363 569.672654
-238.837627 -59.675750 569.641017
-238.911446 -61.674137 569.609380
-238.985265 -63.672524 569.577744
-239.059084 -65.670910 569.546107
-239.132903 -67.669297 569.514470
-239.206722 -69.667684 569.482833
-239.280541 -71.666071 569.451197
-239.354360 -73.664458 569.419560
-239.428179 -75.662845 569.387923
-239.501998 -77.661231 569.356287
-239.575817 -79.659618 569.324650
-239.649636 -81.658005 569.293013
-239.723455 -83.656392 569.261376
-239.797274 -85.654779 569.229740
-239.871093 -87.653165 569.198103
-239.944912 -89.651552 569.166466
-240.018731 -91.649939 569.134829
-240.092550 -93.648326 569.103193
-240.166369 -95.646713 569.071556
-240.240188 -97.645100 569.039919
-240.314007 -99.643486 569.008283
-240.387826 -101.641873 568.976646
-240.461645 -103.640260 568.945009
-240.535465 -105.638647 568.913372
-240.609284 -107.637034 568.881736
-240.683103 -109.635420 568.850099
-240.756922 -111.633807 568.818462
-240.830741 -113.632194 568.786825
-240.904560 -115.630581 568.755189
-240.978379 -117.628968 568.723552
-241.052198 -119.627355 568.691915
-241.126017 -121.625741 568.660279
-241.199836 -123.624128 568.628642
-241.273655 -125.622515 568.597005
-241.347474 -127.620902 568.565368
-241.421293 -129.619289 568.533732
-241.495112 -131.617675 568.502095
-241.568931 -133.616062 568.470458
-241.642750 -135.614449 568.438821
-241.716569 -137.612836 568.407185
-241.790388 -139.611223 568.375548
-241.864207 -141.609610 568.343911
-241.938026 -143.607996 568.312274
-242.011845 -145.606383 568.280638
-242.085664 -147.604770 568.249001
-242.159483 -149.603157 568.217364
-242.233302 -151.601544 568.185728
-242.307121 -153.599930 568.154091
-242.380940 -155.598317 568.122454
-242.454760 -157.596704 568.090817
-242.528579 -159.595091 568.059181
-242.602398 -161.593478 568.027544
-242.676217 -163.591864 567.995907
-242.750036 -165.590251 567.964270
-242.823855 -167.588638 567.932634
-242.897674 -169.587025 567.900997
-242.971493 -171.585412 567.869360
-243.045312 -173.583799 567.837724
-243.119131 -175.582185 567.806087
-243.192950 -177.580572 567.774450
-243.266769 -179.578959 567.742813
-243.340588 -181.577346 567.711177
-243.414407 -183.575733 567.679540
-243.488226 -185.574119 567.647903
-243.562045 -187.572506 567.616266
-243.635864 -189.570893 567.584630
-243.709683 -191.569280 567.552993
-243.783502 -193.567667 567.521356
-243.857321 -195.566054 567.489719
-243.931140 -197.564440 567.458083
-244.004959 -199.562827 567.426446
-244.078778 -201.561214 567.394809
-244.152597 -203.559601 567.363173
-244.226416 -205.557988 567.331536
-244.300235 -207.556374 567.299899
-244.374055 -209.554761 567.268262
-244.447874 -211.553148 567.236626
-244.521693 -213.551535 567.204989
-244.595512 -215.549922 567.173352
-244.669331 -217.548309 567.141715
-244.743150 -219.546695 567.110079
-244.816969 -221.545082 567.078442
-244.890788 -223.543469 567.046805
-244.964607 -225.541856 567.015169
-245.038426 -227.540243 566.983532
-245.112245 -229.538629 566.951895
-245.186064 -231.537016 566.920258
-245.259883 -233.535403 566.888622
-245.333702 -235.533790 566.856985
-245.407521 -237.532177 566.825348
-245.481340 -239.530563 566.793711
-245.555159 -241.528950 566.762075
-245.628978 -243.527337 566.730438
-245.702797 -245.525724 566.698801
-245.776616 -247.524111 566.667164
-245.850435 -249.522498 566.635528
-245.924254 -251.520884 566.603891
-245.998073 -253.519271 566.572254
-246.071892 -255.517658 566.540618
-246.145711 -257.516045 566.508981
-246.219530 -259.514432 566.477344
-246.293349 -261.512818 566.445707
-246.367169 -263.511205 566.414071
-246.440988 -265.509592 566.382434
-246.514807 -267.507979 566.350797
-246.588626 -269.506366 566.319160
-246.662445 -271.504753 566.287524
-246.736264 -273.503139 566.255887
-246.810083 -275.501526 566.224250
-246.883902 -277.499913 566.192614
-246.957721 -279.498300 566.160977
-247.031540 -281.496687 566.129340
-247.105359 -283.495073 566.097703
-247.179178 -285.493460 566.066067
-247.252997 -287.491847 566.034430
-247.326816 -289.490234 566.002793
-247.400635 -291.488621 565.971156
-247.474454 -293.487008 565.939520
-247.548273 -295.485394 565.907883
-247.622092 -297.483781 565.876246
-247.695911 -299.482168 565.844609
-247.769730 -301.480555 565.812973
-247.843549 -303.478942 565.781336
-247.917368 -305.477328 565.749699
-247.991187 -307.475715 565.718063
-248.065006 -309.474102 565.686426
-248.138825 -311.472489 565.654789
-248.212644 -313.470876 565.623152
-248.286464 -315.469263 565.591516
-248.360283 -317.467649 565.559879
-248.434102 -319.466036 565.528242
-248.507921 -321.464423 565.496605
-248.581740 -323.462810 565.464969
-248.655559 -325.461197 565.433332
-248.729378 -327.459583 565.401695
-248.803197 -329.457970 565.370059
-248.877016 -331.456357 565.338422
-248.950835 -333.454744 565.306785
-249.024654 -335.453131 565.275148
-249.098473 -337.451517 565.243512
-249.172292 -339.449904 565.211875
-249.246111 -341.448291 565.180238
-249.319930 -343.446678 565.148601
-249.393749 -345.445065 565.116965
-249.467568 -347.443452 565.085328
-249.541387 -349.441838 565.053691
-249.615206 -351.440225 565.022054
-249.689025 -353.438612 564.990418
-249.762844 -355.436999 564.958781
-249.836663 -357.435386 564.927144
-249.910482 -359.433772 564.895508
-249.984301 -361.432159 564.863871
-250.058120 -363.430546 564.832234
-250.131939 -365.428933 564.800597
-250.205759 -367.427320 564.768961
-250.279578 -369.425707 564.737324
-250.353397 -371.424093 564.705687
-250.427216 -373.422480 564.674050
-250.501035 -375.420867 564.642414
-250.574854 -377.419254 564.610777
-250.648673 -379.417641 564.579140
-250.722492 -381.416027 564.547504
-250.796311 -383.414414 564.515867
-250.870130 -385.412801 564.484230
-250.943949 -387.411188 564.452593
-251.017768 -389.409575 564.420957
-251.091587 -391.407962 564.389320
-251.165406 -393.406348 564.357683
-251.239225 -395.404735 564.326046
-251.313044 -397.403122 564.294410
-251.386863 -399.401509 564.262773
-251.460682 -401.399896 564.231136
-251.534501 -403.398282 564.199499
-251.608320 -405.396669 564.167863
-251.682139 -407.395056 564.136226
-251.755958 -409.393443 564.104589
-251.829777 -411.391830 564.072953
-251.903596 -413.390216 564.041316
-224.000000 220.000000 600.000000
-224.000000 221.962389 599.613956
-224.000000 223.924778 599.227913
-224.000000 225.887167 598.841869
-224.000000 227.849556 598.455825
-224.000000 229.811945 598.069781
-224.000000 231.774333 597.683738
-224.000000 233.736722 597.297694
-224.000000 235.699111 596.911650
-224.000000 237.661500 596.525607
-224.000000 239.623889 596.139563
-224.000000 241.586278 595.753519
-224.000000 243.548667 595.367475
-224.000000 245.511056 594.981432
-224.000000 247.473445 594.595388
-224.000000 249.435834 594.209344
-224.000000 251.398223 593.823300
-224.000000 253.360612 593.437257
-224.000000 255.323000 593.051213
-224.000000 257.285389 592.665169
-224.000000 259.247778 592.279126
-224.000000 261.210167 591.893082
-224.000000 263.172556 591.507038
-224.000000 265.134945 591.120994
-224.000000 267.097334 590.734951
-224.000000 269.059723 590.348907
-224.000000 271.022112 589.962863
-224.000000 272.984501 589.576820
-224.000000 274.946890 589.190776
-224.000000 276.909278 588.804732
-224.000000 278.871667 588.418688
-224.000000 280.834056 588.032645
-224.000000 282.796445 587.646601
-224.000000 284.758834 587.260557
-224.000000 286.721223 586.874514
-224.000000 288.683612 586.488470
-224.000000 290.646001 586.102426
-224.000000 292.608390 585.716382
-224.000000 294.570779 585.330339
-224.000000 296.533168 584.944295
-224.000000 298.495557 584.558251
-224.000000 300.457945 584.172207
-224.000000 302.420334 583.786164
-224.000000 304.382723 583.400120
-224.000000 306.345112 583.014076
-224.000000 308.307501 582.628033
-224.000000 310.269890 582.241989
-224.000000 312.232279 581.855945
-224.000000 314.194668 581.469901
-224.000000 316.157057 581.083858
-224.000000 318.119446 580.697814
-224.000000 320.081835 580.311770
-224.000000 322.044223 579.925727
-224.000000 324.006612 579.539683
-224.000000 325.969001 579.153639
-224.000000 327.931390 578.767595
-224.000000 329.893779 578.381552
-224.000000 331.856168 577.995508
-224.000000 333.818557 577.609464
-224.000000 335.780946 577.223420
-224.000000 337.743335 576.837377
-224.000000 339.705724 576.451333
-480.000000 -82.000000 600.000000
-478.706757 -80.474378 600.000000
-477.413515 -78.948755 600.000000
-476.120272 -77.423133 600.000000
-474.827029 -75.897511 600.000000
-473.533786 -74.371889 600.000000
-472.240544 -72.846266 600.000000
-470.947301 -71.320644 600.000000
-469.654058 -69.795022 600.000000
-468.360816 -68.269400 600.000000
-467.067573 -66.743777 600.000000
-465.774330 -65.218155 600.000000
-464.481087 -63.692533 600.000000
-463.187845 -62.166911 600.000000
-461.894602 -60.641288 600.000000
-460.601359 -59.115666 600.000000
-459.308117 -57.590044 600.000000
-458.014874 -56.064422 600.000000
-456.721631 -54.538799 600.000000
-455.428388 -53.013177 600.000000
-454.135146 -51.487555 600.000000
-452.841903 -49.961932 600.000000
-451.548660 -48.436310 600.000000
-450.255418 -46.910688 600.000000
-448.962175 -45.385066 600.000000
-447.668932 -43.859443 600.000000
-446.375689 -42.333821 600.000000
-445.082447 -40.808199 600.000000
-443.789204 -39.282577 600.000000
-442.495961 -37.756954 600.000000
-441.202719 -36.231332 600.000000
-439.909476 -34.705710 600.000000
-438.616233 -33.180088 600.000000
-437.322990 -31.654465 600.000000
-436.029748 -30.128843 600.000000
-434.736505 -28.603221 600.000000
-433.443262 -27.077599 600.000000
-432.150020 -25.551976 600.000000
-430.856777 -24.026354 600.000000
-429.563534 -22.500732 600.000000
-428.270292 -20.975110 600.000000
-426.977049 -19.449487 600.000000
-425.683806 -17.923865 600.000000
-424.390563 -16.398243 600.000000
-423.097321 -14.872620 600.000000
-421.804078 -13.346998 600.000000
-420.510835 -11.821376 600.000000
-419.217593 -10.295754 600.000000
-417.924350 -8.770131 600.000000
-416.631107 -7.244509 600.000000
-415.337864 -5.718887 600.000000
-414.044622 -4.193265 600.000000
-412.751379 -2.667642 600.000000
-411.458136 -1.142020 600.000000
-410.164894 0.383602 600.000000
-408.871651 1.909224 600.000000
-407.578408 3.434847 600.000000
-406.285165 4.960469 600.000000
-404.991923 6.486091 600.000000
-403.698680 8.011713 600.000000
-402.405437 9.537336 600.000000
-401.112195 11.062958 600.000000
-399.818952 12.588580 600.000000
-398.525709 14.114203 600.000000
-397.232466 15.639825 600.000000
-395.939224 17.165447 600.000000
-394.645981 18.691069 600.000000
-393.352738 20.216692 600.000000
-392.059496 21.742314 600.000000
-390.766253 23.267936 600.000000
-389.473010 24.793558 600.000000
-388.179767 26.319181 600.000000
-386.886525 27.844803 600.000000
-385.593282 29.370425 600.000000
-384.300039 30.896047 600.000000
-383.006797 32.421670 600.000000
-381.713554 33.947292 600.000000
-380.420311 35.472914 600.000000
-379.127068 36.998536 600.000000
-377.833826 38.524159 600.000000
-376.540583 40.049781 600.000000
-375.247340 41.575403 600.000000
-373.954098 43.101026 600.000000
-372.660855 44.626648 600.000000
-371.367612 46.152270 600.000000
-370.074369 47.677892 600.000000
-368.781127 49.203515 600.000000
-367.487884 50.729137 600.000000
-366.194641 52.254759 600.000000
-364.901399 53.780381 600.000000
-363.608156 55.306004 600.000000
-362.314913 56.831626 600.000000
-361.021670 58.357248 600.000000
-359.728428 59.882870 600.000000
-358.435185 61.408493 600.000000
-357.141942 62.934115 600.000000
-355.848700 64.459737 600.000000
-354.555457 65.985359 600.000000
-353.262214 67.510982 600.000000
-351.968971 69.036604 600.000000
-350.675729 70.562226 600.000000
-349.382486 72.087848 600.000000
-348.089243 73.613471 600.000000
-346.796001 75.139093 600.000000
-345.502758 76.664715 600.000000
-344.209515 78.190338 600.000000
-342.916272 79.715960 600.000000
-341.623030 81.241582 600.000000
-340.329787 82.767204 600.000000
-339.036544 84.292827 600.000000
-337.743302 85.818449 600.000000
-336.450059 87.344071 600.000000
-335.156816 88.869693 600.000000
-333.863574 90.395316 600.000000
-332.570331 91.920938 600.000000
-331.277088 93.446560 600.000000
-329.983845 94.972182 600.000000
-328.690603 96.497805 600.000000
-327.397360 98.023427 600.000000
-326.104117 99.549049 600.000000
-324.810875 101.074671 600.000000
-323.517632 102.600294 600.000000
-322.224389 104.125916 600.000000
-320.931146 105.651538 600.000000
-319.637904 107.177161 600.000000
-318.344661 108.702783 600.000000
-317.051418 110.228405 600.000000
-315.758176 111.754027 600.000000
-314.464933 113.279650 600.000000
-313.171690 114.805272 600.000000
-311.878447 116.330894 600.000000
-310.585205 117.856516 600.000000
-309.291962 119.382139 600.000000
-307.998719 120.907761 600.000000
-306.705477 122.433383 600.000000
-305.412234 123.959005 600.000000
-304.118991 125.484628 600.000000
-302.825748 127.010250 600.000000
-301.532506 128.535872 600.000000
-300.239263 130.061494 600.000000
-298.946020 131.587117 600.000000
-297.652778 133.112739 600.000000
-296.359535 134.638361 600.000000
-295.066292 136.163983 600.000000
-293.773049 137.689606 600.000000
-292.479807 139.215228 600.000000
-291.186564 140.740850 600.000000
-289.893321 142.266473 600.000000
-288.600079 143.792095 600.000000
-287.306836 145.317717 600.000000
-286.013593 146.843339 600.000000
-284.720350 148.368962 600.000000
-283.427108 149.894584 600.000000
-282.133865 151.420206 600.000000
-280.840622 152.945828 600.000000
-279.547380 154.471451 600.000000
-278.254137 155.997073 600.000000
-276.960894 157.522695 600.000000
-275.667651 159.048317 600.000000
-274.374409 160.573940 600.000000
-273.081166 162.099562 600.000000
-271.787923 163.625184 600.000000
-270.494681 165.150806 600.000000
-269.201438 166.676429 600.000000
-267.908195 168.202051 600.000000
-266.614952 169.727673 600.000000
-265.321710 171.253296 600.000000
-264.028467 172.778918 600.000000
-262.735224 174.304540 600.000000
-261.441982 175.830162 600.000000
-260.148739 177.355785 600.000000
-258.855496 178.881407 600.000000
-257.562253 180.407029 600.000000
-256.269011 181.932651 600.000000
-254.975768 183.458274 600.000000
-253.682525 184.983896 600.000000
-252.389283 186.509518 600.000000
-251.096040 188.035140 600.000000
-249.802797 189.560763 600.000000
-248.509554 191.086385 600.000000
-247.216312 192.612007 600.000000
-245.923069 194.137629 600.000000
-244.629826 195.663252 600.000000
-243.336584 197.188874 600.000000
-242.043341 198.714496 600.000000
-240.750098 200.240119 600.000000
-239.456856 201.765741 600.000000
-238.163613 203.291363 600.000000
-236.870370 204.816985 600.000000
-235.577127 206.342608 600.000000
-234.283885 207.868230 600.000000
-232.990642 209.393852 600.000000
-231.697399 210.919474 600.000000
-230.404157 212.445097 600.000000
-229.110914 213.970719 600.000000
-227.817671 215.496341 600.000000
-226.524428 217.021963 600.000000
-482.000000 464.000000 596.000000
-481.992674 462.000067 596.014652
-481.985348 460.000134 596.029303
-481.978023 458.000201 596.043955
-481.970697 456.000268 596.058606
-481.963371 454.000335 596.073258
-481.956045 452.000403 596.087909
-481.948720 450.000470 596.102561
-481.941394 448.000537 596.117212
-481.934068 446.000604 596.131864
-481.926742 444.000671 596.146515
-481.919417 442.000738 596.161167
-481.912091 440.000805 596.175818
-481.904765 438.000872 596.190470
-481.897439 436.000939 596.205121
-481.890114 434.001006 596.219773
-481.882788 432.001073 596.234424
-481.875462 430.001140 596.249076
-481.868136 428.001208 596.263727
-481.860811 426.001275 596.278379
-481.853485 424.001342 596.293030
-481.846159 422.001409 596.307682
-481.838833 420.001476 596.322334
-481.831507 418.001543 596.336985
-481.824182 416.001610 596.351637
-481.816856 414.001677 596.366288
-481.809530 412.001744 596.380940
-481.802204 410.001811 596.395591
-481.794879 408.001878 596.410243
-481.787553 406.001945 596.424894
-481.780227 404.002013 596.439546
-481.772901 402.002080 596.454197
-481.765576 400.002147 596.468849
-481.758250 398.002214 596.483500
-481.750924 396.002281 596.498152
-481.743598 394.002348 596.512803
-481.736273 392.002415 596.527455
-481.728947 390.002482 596.542106
-481.721621 388.002549 596.556758
-481.714295 386.002616 596.571409
-481.706970 384.002683 596.586061
-481.699644 382.002750 596.600712
-481.692318 380.002818 596.615364
-481.684992 378.002885 596.630015
-481.677666 376.002952 596.644667
-481.670341 374.003019 596.659319
-481.663015 372.003086 596.673970
-481.655689 370.003153 596.688622
-481.648363 368.003220 596.703273
-481.641038 366.003287 596.717925
-481.633712 364.003354 596.732576
-481.626386 362.003421 596.747228
-481.619060 360.003488 596.761879
-481.611735 358.003555 596.776531
-481.604409 356.003623 596.791182
-481.597083 354.003690 596.805834
-481.589757 352.003757 596.820485
-481.582432 350.003824 596.835137
-481.575106 348.003891 596.849788
-481.567780 346.003958 596.864440
-481.560454 344.004025 596.879091
-481.553129 342.004092 596.893743
-481.545803 340.004159 596.908394
-481.538477 338.004226 596.923046
-481.531151 336.004293 596.937697
-481.523825 334.004360 596.952349
-481.516500 332.004428 596.967001
-481.509174 330.004495 596.981652
-481.501848 328.004562 596.996304
-481.494522 326.004629 597.010955
-481.487197 324.004696 597.025607
-481.479871 322.004763 597.040258
-481.472545 320.004830 597.054910
-481.465219 318.004897 597.069561
-481.457894 316.004964 597.084213
-481.450568 314.005031 597.098864
-481.443242 312.005098 597.113516
-481.435916 310.005166 597.128167
-481.428591 308.005233 597.142819
-481.421265 306.005300 597.157470
-481.413939 304.005367 597.172122
-481.406613 302.005434 597.186773
-481.399288 300.005501 597.201425
-481.391962 298.005568 597.216076
-481.384636 296.005635 597.230728
-481.377310 294.005702 597.245379
-481.369985 292.005769 597.260031
-481.362659 290.005836 597.274683
-481.355333 288.005903 597.289334
-481.348007 286.005971 597.303986
-481.340681 284.006038 597.318637
-481.333356 282.006105 597.333289
-481.326030 280.006172 597.347940
-481.318704 278.006239 597.362592
-481.311378 276.006306 597.377243
-481.304053 274.006373 597.391895
-481.296727 272.006440 597.406546
-481.289401 270.006507 597.421198
-481.282075 268.006574 597.435849
-481.274750 266.006641 597.450501
-481.267424 264.006708 597.465152
-481.260098 262.006776 597.479804
-481.252772 260.006843 597.494455
-481.245447 258.006910 597.509107
-481.238121 256.006977 597.523758
-481.230795 254.007044 597.538410
-481.223469 252.007111 597.553061
-481.216144 250.007178 597.567713
-481.208818 248.007245 597.582365
-481.201492 246.007312 597.597016
-481.194166 244.007379 597.611668
-481.186840 242.007446 597.626319
-481.179515 240.007513 597.640971
-481.172189 238.007581 597.655622
-481.164863 236.007648 597.670274
-481.157537 234.007715 597.684925
-481.150212 232.007782 597.699577
-481.142886 230.007849 597.714228
-481.135560 228.007916 597.728880
-481.128234 226.007983 597.743531
-481.120909 224.008050 597.758183
-481.113583 222.008117 597.772834
-481.106257 220.008184 597.787486
-481.098931 218.008251 597.802137
-481.091606 216.008318 597.816789
-481.084280 214.008386 597.831440
-481.076954 212.008453 597.846092
-481.069628 210.008520 597.860743
-481.062303 208.008587 597.875395
-481.054977 206.008654 597.890046
-481.047651 204.008721 597.904698
-481.040325 202.008788 597.919350
-481.032999 200.008855 597.934001
-481.025674 198.008922 597.948653
-481.018348 196.008989 597.963304
-481.011022 194.009056 597.977956
-481.003696 192.009124 597.992607
-480.996371 190.009191 598.007259
-480.989045 188.009258 598.021910
-480.981719 186.009325 598.036562
-480.974393 184.009392 598.051213
-480.967068 182.009459 598.065865
-480.959742 180.009526 598.080516
-480.952416 178.009593 598.095168
-480.945090 176.009660 598.109819
-480.937765 174.009727 598.124471
-480.930439 172.009794 598.139122
-480.923113 170.009861 598.153774
-480.915787 168.009929 598.168425
-480.908462 166.009996 598.183077
-480.901136 164.010063 598.197728
-480.893810 162.010130 598.212380
-480.886484 160.010197 598.227032
-480.879158 158.010264 598.241683
-480.871833 156.010331 598.256335
-480.864507 154.010398 598.270986
-480.857181 152.010465 598.285638
-480.849855 150.010532 598.300289
-480.842530 148.010599 598.314941
-480.835204 146.010666 598.329592
-480.827878 144.010734 598.344244
